ply
format ascii 1.0
element vertex 973
property float x
property float y
property float z
property uchar red
property uchar green
property uchar blue
property uchar alpha
end_header
46.9369 -85.4492 693 255 0 0 255
29.697 -66.5213 684 255 0 0 255
31.1558 -75.4929 690 255 0 0 255
30.1312 -83.162 694 255 0 0 255
20.6959 -88.8704 701 255 0 0 255
7.47114 -90.8989 717 255 0 0 255
1.23824 -76.7711 713 255 0 0 255
13.124 -59.6545 687 255 0 0 255
29.6102 -61.5891 682 255 0 0 255
36.8243 -68.897 684 255 0 0 255
37.1473 -76.6912 690 255 0 0 255
26.5154 -81.9568 694 255 0 0 255
2.47649 -78.0093 713 255 0 0 255
-1.24345 -72.1203 716 255 0 0 255
-2.45912 -59.0189 708 255 0 0 255
2.43133 -58.352 700 255 0 0 255
19.0061 -62.9576 684 255 0 0 255
26.4008 -76.8023 691 255 0 0 255
27.8405 -85.9424 697 255 0 0 255
17.1895 -92.0867 707 255 0 0 255
-7.5024 -66.2712 720 255 0 0 255
-7.47114 -53.5432 717 255 0 0 255
7.2419 -48.2793 695 255 0 0 255
20.1349 -54.4827 682 255 0 0 255
22.5697 -66.5213 684 255 0 0 255
18.1568 -78.6797 697 255 0 0 255
1.2504 -82.5264 720 255 0 0 255
-15.3382 -60.0748 736 255 0 0 255
-11.2536 -52.5168 720 255 0 0 255
4.80015 -56.4017 691 255 0 0 255
14.4004 -69.6021 691 255 0 0 255
15.7359 -81.1006 697 255 0 0 255
6.1999 -88.0386 714 255 0 0 255
1.25908 -88.1358 725 255 0 0 255
-3.73557 -73.4662 717 255 0 0 255
-3.70431 -62.9733 711 255 0 0 255
-1.2174 -60.8702 701 255 0 0 255
9.62808 -67.3966 693 255 0 0 255
13.315 -77.4692 697 255 0 0 255
12.174 -84.0008 701 255 0 0 255
-11.5037 -75.413 736 255 0 0 255
-12.7992 -63.9962 737 255 0 0 255
-7.46072 -59.6858 716 255 0 0 255
3.65221 -62.0876 701 255 0 0 255
9.68365 -72.6274 697 255 0 0 255
10.9566 -79.1312 701 255 0 0 255
2.47996 -81.8387 714 255 0 0 255
-11.5193 -75.5155 737 255 0 0 255
-15.3591 -60.1564 737 255 0 0 255
-14.0601 -52.4057 736 255 0 0 255
2.42091 -48.4183 697 255 0 0 255
11.9135 -58.3763 686 255 0 0 255
14.3796 -65.9065 690 255 0 0 255
10.8629 -70.005 695 255 0 0 255
1.22782 -72.4416 707 255 0 0 255
-7.47114 -59.7691 717 255 0 0 255
-8.7528 -46.2648 720 255 0 0 255
-1.2174 -41.3917 701 255 0 0 255
14.4004 -43.2013 691 255 0 0 255
20.0759 -51.9611 680 255 0 0 255
20.194 -61.7698 684 255 0 0 255
8.43673 -65.0833 694 255 0 0 255
-2.45912 -62.7076 708 255 0 0 255
-10.0449 -42.6907 723 255 0 0 255
-9.96152 -26.149 717 255 0 0 255
1.22261 -20.7844 704 255 0 0 255
14.3796 -27.5609 690 255 0 0 255
17.9745 -44.3371 690 255 0 0 255
14.2337 -56.9349 683 255 0 0 255
0 -63.5759 704 255 0 0 255
-12.5387 -60.1859 722 255 0 0 255
-15.3382 -42.1802 736 255 0 0 255
-12.504 -26.2584 720 255 0 0 255
-1.22782 -23.3286 707 255 0 0 255
8.40026 -31.201 691 255 0 0 255
11.983 -49.1303 690 255 0 0 255
8.40026 -61.2019 691 255 0 0 255
-1.22435 -64.8905 705 255 0 0 255
-11.2067 -48.5624 717 255 0 0 255
-12.504 -23.7576 720 255 0 0 255
-6.1478 -13.5252 708 255 0 0 255
4.84183 -14.5255 697 255 0 0 255
10.7847 -28.7592 690 255 0 0 255
12.0004 -39.6012 691 255 0 0 255
4.82793 -43.4514 695 255 0 0 255
-6.19122 -40.862 713 255 0 0 255
-12.4866 -23.7246 719 255 0 0 255
-12.4866 -11.238 719 255 0 0 255
-2.42091 -8.4732 697 255 0 0 255
4.86961 -17.0436 701 255 0 0 255
6.01755 -30.0877 693 255 0 0 255
1.22088 -34.1845 703 255 0 0 255
-6.26937 -35.1085 722 255 0 0 255
-13.7544 -20.0064 720 255 0 0 255
-13.7926 -10.031 722 255 0 0 255
-2.42439 -4.84877 698 255 0 0 255
8.43673 -14.463 694 255 0 0 255
10.7847 -26.3626 690 255 0 0 255
8.40026 -32.401 691 255 0 0 255
-2.44175 -34.1845 703 255 0 0 255
-4.93213 -32.0589 710 255 0 0 255
-9.90595 -16.0972 713 255 0 0 255
-4.86961 0 701 255 0 0 255
4.7932 -3.5949 690 255 0 0 255
7.20022 -8.40026 691 255 0 0 255
9.62808 -20.4597 693 255 0 0 255
6.07833 -24.3133 700 255 0 0 255
-2.45565 -24.5565 707 255 0 0 255
-8.63123 -13.5634 710 255 0 0 255
-9.83648 1.22956 708 255 0 0 255
-4.86961 8.52182 701 255 0 0 255
4.77236 8.35163 687 255 0 0 255
9.50304 0 684 255 0 0 255
9.5864 -10.7847 690 255 0 0 255
1.21567 -14.588 700 255 0 0 255
-12.504 -10.0032 720 255 0 0 255
-13.678 -3.73036 716 255 0 0 255
-13.6207 9.90595 713 255 0 0 255
-2.42439 12.1219 698 255 0 0 255
9.50304 5.9394 684 255 0 0 255
14.2129 -4.73763 682 255 0 0 255
14.3796 -14.3796 690 255 0 0 255
2.43481 -17.0436 701 255 0 0 255
-7.40862 -14.8172 711 255 0 0 255
-9.83648 0 708 255 0 0 255
-6.12175 8.57045 705 255 0 0 255
5.98282 10.7691 689 255 0 0 255
14.1712 1.18093 680 255 0 0 255
16.606 -8.303 683 255 0 0 255
15.4876 -10.7222 686 255 0 0 255
6.02623 -10.8472 694 255 0 0 255
0 9.65587 695 255 0 0 255
4.80015 14.4004 691 255 0 0 255
15.3521 15.3521 680 255 0 0 255
22.3717 9.41968 678 255 0 0 255
23.4797 -1.17399 676 255 0 0 255
21.2568 -8.26653 680 255 0 0 255
10.7847 -10.7847 690 255 0 0 255
3.5949 -1.1983 690 255 0 0 255
3.62095 18.1047 695 255 0 0 255
8.3881 27.5609 690 255 0 0 255
19.9578 28.1757 676 255 0 0 255
24.4714 19.8102 671 255 0 0 255
25.7895 4.689 675 255 0 0 255
20.0168 -2.35492 678 255 0 0 255
9.54472 -3.57927 687 255 0 0 255
2.41049 9.64197 694 255 0 0 255
2.43133 26.7447 700 255 0 0 255
6.03492 36.2095 695 255 0 0 255
14.2962 35.7406 686 255 0 0 255
18.8671 29.4799 679 255 0 0 255
18.8949 18.8949 680 255 0 0 255
14.1712 11.8093 680 255 0 0 255
4.7932 9.5864 690 255 0 0 255
-1.2174 18.261 701 255 0 0 255
-2.4487 34.2818 705 255 0 0 255
7.2419 45.8654 695 255 0 0 255
26.1334 48.7031 684 255 0 0 255
32.104 46.9213 711 255 0 0 255
29.9367 26.4824 663 255 0 0 255
23.2713 24.4349 670 255 0 0 255
18.8671 27.1215 679 255 0 0 255
16.6789 42.8887 686 255 0 0 255
16.7762 51.5269 690 255 0 0 255
23.8271 54.8023 686 255 0 0 255
31.9686 54.1006 708 255 0 0 255
34.5249 44.3892 710 255 0 0 255
32.434 31.2756 667 255 0 0 255
24.4349 27.9256 670 255 0 0 255
17.688 29.4799 679 255 0 0 255
15.4876 40.506 686 255 0 0 255
16.7519 52.6488 689 255 0 0 255
23.8618 56.0752 687 255 0 0 255
28.5091 55.8304 684 255 0 0 255
35.6069 54.0242 707 255 0 0 255
37.0431 39.5126 711 255 0 0 255
28.8721 27.7172 665 255 0 0 255
23.2713 27.9256 670 255 0 0 255
18.9505 37.901 682 255 0 0 255
21.4756 56.0752 687 255 0 0 255
26.2098 60.759 686 255 0 0 255
30.7946 60.4047 682 255 0 0 255
39.3459 56.5598 708 255 0 0 255
43.1562 40.6901 710 255 0 0 255
35.5322 26.3626 660 255 0 0 255
29.8915 25.2928 662 255 0 0 255
27.7589 26.6023 666 255 0 0 255
26.0569 45.0075 682 255 0 0 255
28.5091 51.0788 684 255 0 0 255
34.4277 54.1006 708 255 0 0 255
40.4035 53.8714 705 255 0 0 255
45.3009 48.974 705 255 0 0 255
45.6222 41.9231 710 255 0 0 255
44.4517 37.0431 711 255 0 0 255
38.224 36.991 710 255 0 0 255
34.3791 47.8851 707 255 0 0 255
31.8852 60.2276 680 255 0 0 255
31.8383 66.035 679 255 0 0 255
38.7416 65.7433 676 255 0 0 255
45.6865 62.9733 711 255 0 0 255
46.5253 51.4227 705 255 0 0 255
43.0346 41.805 708 255 0 0 255
35.758 36.991 710 255 0 0 255
29.176 36.1782 672 255 0 0 255
30.7946 60.4047 682 255 0 0 255
41.0895 62.2213 676 255 0 0 255
49.1824 61.478 708 255 0 0 255
53.795 50.1271 704 255 0 0 255
52.7964 41.746 707 255 0 0 255
46.7233 40.5755 708 255 0 0 255
38.224 40.6901 710 255 0 0 255
36.8347 55.252 707 255 0 0 255
35.3238 63.5828 678 255 0 0 255
42.201 67.9905 675 255 0 0 255
49.2345 66.8183 675 255 0 0 255
55.3302 60.2484 708 255 0 0 255
55.0176 47.6819 704 255 0 0 255
50.412 40.5755 708 255 0 0 255
43.1562 38.224 710 255 0 0 255
39.2903 45.4295 707 255 0 0 255
38.0625 60.1633 707 255 0 0 255
42.4511 63.6766 679 255 0 0 255
50.7055 63.6766 679 255 0 0 255
58.7688 52.647 705 255 0 0 255
59.4305 33.7938 671 255 0 0 255
55.9936 25.14 658 255 0 0 255
48.9132 22.7503 655 255 0 0 255
47.1192 34.7194 714 255 0 0 255
44.0141 52.5724 704 255 0 0 255
44.2642 60.2484 708 255 0 0 255
51.579 64.4737 675 255 0 0 255
57.6955 62.4054 678 255 0 0 255
59.0467 57.8657 680 255 0 0 255
61.7698 48.7031 684 255 0 0 255
55.0176 45.2367 704 255 0 0 255
47.7496 47.7496 705 255 0 0 255
45.3009 53.8714 705 255 0 0 255
41.0287 71.5072 675 255 0 0 255
43.4375 77.4831 676 255 0 0 255
50.4814 75.1351 676 255 0 0 255
53.9235 70.335 675 255 0 0 255
60.4047 58.0359 682 255 0 0 255
55.0176 45.2367 704 255 0 0 255
46.6573 45.4295 707 255 0 0 255
40.5182 54.0242 707 255 0 0 255
38.7416 62.2213 676 255 0 0 255
42.201 67.9905 675 255 0 0 255
51.579 69.1628 675 255 0 0 255
60.139 61.3182 679 255 0 0 255
60.6861 33.8442 672 255 0 0 255
52.4057 23.9243 656 255 0 0 255
47.7757 22.7503 655 255 0 0 255
48.0883 38.224 710 255 0 0 255
47.8851 56.4799 707 255 0 0 255
51.6415 61.478 708 255 0 0 255
57.7806 60.139 679 255 0 0 255
66.424 42.7012 683 255 0 0 255
66.4223 31.4632 671 255 0 0 255
64.6735 18.4781 665 255 0 0 255
57.31 13.7544 660 255 0 0 255
50.1271 19.3673 656 255 0 0 255
50.1983 47.7496 705 255 0 0 255
51.579 63.3015 675 255 0 0 255
62.5895 68.4941 680 255 0 0 255
71.7938 63.4179 689 255 0 0 255
73.6486 46.3273 684 255 0 0 255
73.1102 31.8383 679 255 0 0 255
67.1847 22.0088 667 255 0 0 255
60.7486 19.4854 660 255 0 0 255
60.5037 34.5736 711 255 0 0 255
60.1633 54.0242 707 255 0 0 255
61.6795 60.4933 683 255 0 0 255
69.0985 61.9504 686 255 0 0 255
75.1647 51.3029 687 255 0 0 255
77.0993 34.3982 683 255 0 0 255
71.931 17.688 679 255 0 0 255
60.4152 9.29464 669 255 0 0 255
51.4227 11.4273 658 255 0 0 255
51.7874 35.758 710 255 0 0 255
51.4227 52.647 705 255 0 0 255
60.4933 56.9349 683 255 0 0 255
67.7092 52.2667 684 255 0 0 255
71.931 36.5551 679 255 0 0 255
71.931 17.688 679 255 0 0 255
64.3782 9.36411 674 255 0 0 255
56.9297 8.13281 669 255 0 0 255
50.2036 22.8198 657 255 0 0 255
51.3498 50.1271 704 255 0 0 255
59.1856 57.9526 710 255 0 0 255
65.3334 54.6425 684 255 0 0 255
72.2488 39.0854 682 255 0 0 255
73.1102 20.0463 679 255 0 0 255
66.8183 9.378 675 255 0 0 255
57.7442 6.9293 665 255 0 0 255
47.9216 12.5509 657 255 0 0 255
44.4986 22.8198 657 255 0 0 255
51.4227 51.4227 705 255 0 0 255
60.4933 54.5626 683 255 0 0 255
65.3334 54.6425 684 255 0 0 255
72.2488 39.0854 682 255 0 0 255
75.802 13.0285 682 255 0 0 255
69.4701 2.35492 678 255 0 0 255
64.5693 0 676 255 0 0 255
48.9879 21.6458 656 255 0 0 255
54.1006 40.5755 708 255 0 0 255
62.7076 47.9528 708 255 0 0 255
70.0849 45.1394 684 255 0 0 255
73.1102 33.0175 679 255 0 0 255
74.6176 15.3973 682 255 0 0 255
68.2927 3.53238 678 255 0 0 255
50.4328 5.731 660 255 0 0 255
49.0626 26.2428 657 255 0 0 255
54.0242 41.746 707 255 0 0 255
62.7076 47.9528 708 255 0 0 255
65.3334 45.1394 684 255 0 0 255
65.5487 30.4333 674 255 0 0 255
65.257 13.9836 671 255 0 0 255
58.9876 2.31324 666 255 0 0 255
46.8518 5.71363 658 255 0 0 255
45.848 25.2164 660 255 0 0 255
50.412 38.1164 708 255 0 0 255
56.5598 39.3459 708 255 0 0 255
57.4837 25.2928 662 255 0 0 255
60.5055 9.30853 670 255 0 0 255
55.7383 -3.41255 655 255 0 0 255
49.4394 -7.86536 647 255 0 0 255
42.5657 -7.84105 645 255 0 0 255
43.3576 15.9739 657 255 0 0 255
51.2664 18.2281 656 255 0 0 255
57.0495 14.8329 657 255 0 0 255
61.8531 2.33408 672 255 0 0 255
62.1292 -7.0335 675 255 0 0 255
58.9598 -12.9712 679 255 0 0 255
50.563 -13.4835 647 255 0 0 255
48.3158 -4.49449 647 255 0 0 255
49.0626 12.5509 657 255 0 0 255
52.4057 19.3673 656 255 0 0 255
59.4218 20.5691 658 255 0 0 255
63.6141 16.1927 666 255 0 0 255
65.646 7.0335 675 255 0 0 255
65.9378 -3.53238 678 255 0 0 255
61.0473 -9.39189 676 255 0 0 255
51.9263 -9.03067 650 255 0 0 255
49.1372 3.42818 658 255 0 0 255
50.2036 17.1148 657 255 0 0 255
57.3968 22.9587 661 255 0 0 255
66.2243 24.3984 669 255 0 0 255
71.931 16.5088 679 255 0 0 255
71.931 5.89598 679 255 0 0 255
63.3015 -9.378 675 255 0 0 255
60.0505 -11.7746 678 255 0 0 255
54.184 -11.2883 650 255 0 0 255
49.0626 5.70495 657 255 0 0 255
50.2036 22.8198 657 255 0 0 255
65.257 29.1326 671 255 0 0 255
67.4869 23.2713 670 255 0 0 255
69.5726 8.25438 679 255 0 0 255
64.8558 -10.6128 679 255 0 0 255
61.3182 -14.1504 679 255 0 0 255
50.7975 -6.773 650 255 0 0 255
51.579 10.3158 660 255 0 0 255
55.8234 17.0888 656 255 0 0 255
64.6735 18.4781 665 255 0 0 255
69.4701 9.41968 678 255 0 0 255
69.4701 -3.53238 678 255 0 0 255
67.5112 -15.3973 682 255 0 0 255
64.4269 -21.4756 687 255 0 0 255
60.2276 -20.0759 680 255 0 0 255
57.5705 2.30282 663 255 0 0 255
57.1363 17.1409 658 255 0 0 255
63.3275 21.8768 663 255 0 0 255
70.335 18.756 675 255 0 0 255
73.2179 3.5428 680 255 0 0 255
73.6486 -14.2546 684 255 0 0 255
68.3031 -26.3626 690 255 0 0 255
50.4328 4.5848 660 255 0 0 255
51.3445 19.3968 657 255 0 0 255
57.31 21.7778 660 255 0 0 255
61.9886 19.5149 661 255 0 0 255
65.5487 8.19359 674 255 0 0 255
64.7603 -5.8873 678 255 0 0 255
58.9598 -14.1504 679 255 0 0 255
49.6687 -14.6748 650 255 0 0 255
45.9261 -11.2015 645 255 0 0 255
46.8518 3.42818 658 255 0 0 255
52.5654 11.4273 658 255 0 0 255
63.9962 12.7992 670 255 0 0 255
73.2179 4.72373 680 255 0 0 255
74.727 -9.48915 683 255 0 0 255
69.5014 -25.1643 690 255 0 0 255
62.3116 -32.3541 690 255 0 0 255
54.8821 -33.4065 687 255 0 0 255
49.6687 -18.0613 650 255 0 0 255
57.4837 9.19739 662 255 0 0 255
65.3542 10.5034 672 255 0 0 255
70.7518 4.71679 679 255 0 0 255
72.0369 -5.90467 680 255 0 0 255
67.5112 -15.3973 682 255 0 0 255
61.4085 -18.8949 680 255 0 0 255
49.5158 -1.12536 648 255 0 0 255
52.5654 12.57 658 255 0 0 255
61.8948 14.9006 660 255 0 0 255
70.7518 12.9712 679 255 0 0 255
73.2179 -1.18093 680 255 0 0 255
71.4812 -17.8703 686 255 0 0 255
64.802 -30.0009 691 255 0 0 255
53.8453 -35.8969 689 255 0 0 255
45.0405 -31.1818 665 255 0 0 255
40.513 -14.6297 648 255 0 0 255
49.8215 0 652 255 0 0 255
66.035 2.35839 679 255 0 0 255
74.6176 0 682 255 0 0 255
83.162 -14.463 694 255 0 0 255
83.0422 -33.6983 693 255 0 0 255
74.4023 -44.4014 691 255 0 0 255
66.002 -48.0015 691 255 0 0 255
59.915 -35.949 690 255 0 0 255
63.3015 -2.3445 675 255 0 0 255
75.802 0 682 255 0 0 255
82.6827 -5.9915 690 255 0 0 255
74.4023 -52.8016 691 255 0 0 255
67.9071 -61.9504 686 255 0 0 255
64.0517 -56.9349 683 255 0 0 255
64.7082 -31.1558 690 255 0 0 255
65.9378 -7.06476 678 255 0 0 255
71.931 1.1792 679 255 0 0 255
77.2122 1.18788 684 255 0 0 255
80.4025 -10.8003 691 255 0 0 255
80.6352 -30.0877 693 255 0 0 255
75.8211 -45.7334 693 255 0 0 255
69.5014 -50.3286 690 255 0 0 255
67.1048 -50.3286 690 255 0 0 255
63.6019 -33.601 691 255 0 0 255
62.4054 -11.7746 678 255 0 0 255
65.9378 -1.17746 678 255 0 0 255
72.0369 0 680 255 0 0 255
77.438 -7.14812 686 255 0 0 255
81.1006 -26.63 697 255 0 0 255
79.4317 -43.3264 693 255 0 0 255
73.2022 -54.0016 691 255 0 0 255
66.813 -53.689 687 255 0 0 255
64.802 -36.0011 691 255 0 0 255
63.3953 -9.39189 676 255 0 0 255
66.035 1.1792 679 255 0 0 255
69.5726 3.53759 679 255 0 0 255
73.4332 2.36881 682 255 0 0 255
75.0553 -10.7222 686 255 0 0 255
74.2946 -23.966 690 255 0 0 255
68.3031 -32.3541 690 255 0 0 255
62.5825 -32.4948 693 255 0 0 255
53.3 -4.53617 653 255 0 0 255
63.2077 4.68205 674 255 0 0 255
73.4332 4.73763 682 255 0 0 255
78.4001 -2.37576 684 255 0 0 255
79.0878 -13.1813 690 255 0 0 255
70.6997 -29.9575 690 255 0 0 255
60.1755 -38.5123 693 255 0 0 255
49.5992 -40.1517 680 255 0 0 255
43.0936 -21.5468 653 255 0 0 255
42.6977 -12.3599 647 255 0 0 255
53.2184 -4.52923 652 255 0 0 255
64.7603 -2.35492 678 255 0 0 255
67.2142 -3.53759 679 255 0 0 255
66.7158 -20.253 686 255 0 0 255
62.3116 -27.5609 690 255 0 0 255
53.8453 -35.8969 689 255 0 0 255
45.5146 -36.1782 672 255 0 0 255
41.2632 -25.2164 660 255 0 0 255
41.5098 -5.60943 646 255 0 0 255
51.7353 2.29935 662 255 0 0 255
56.9297 3.48549 669 255 0 0 255
62.4054 -2.35492 678 255 0 0 255
62.4974 -14.1504 679 255 0 0 255
58.4614 -31.0203 687 255 0 0 255
52.7252 -37.1473 690 255 0 0 255
44.2155 -36.0706 670 255 0 0 255
40.763 -18.1169 652 255 0 0 255
41.9596 -1.13404 653 255 0 0 255
49.1372 4.57091 658 255 0 0 255
55.4344 4.61953 665 255 0 0 255
57.0495 -4.56396 657 255 0 0 255
58.9598 -17.688 679 255 0 0 255
53.1246 -25.4074 665 255 0 0 255
47.4214 -28.9155 666 255 0 0 255
43.2916 -22.7851 656 255 0 0 255
42.6977 -11.2362 647 255 0 0 255
42.5657 -6.7209 645 255 0 0 255
51.1882 -3.41255 655 255 0 0 255
57.1363 -4.57091 658 255 0 0 255
60.139 -14.1504 679 255 0 0 255
60.759 -26.2098 686 255 0 0 255
49.66 -32.3367 665 255 0 0 255
47.4214 -32.3854 666 255 0 0 255
40.9506 -21.6128 655 255 0 0 255
39.3268 -7.86536 647 255 0 0 255
39.5092 -2.25767 650 255 0 0 255
47.2651 -2.25072 648 255 0 0 255
51.9263 -9.03067 650 255 0 0 255
55.1774 -21.1318 676 255 0 0 255
41.8259 -32.5312 669 255 0 0 255
33.6931 -25.5603 669 255 0 0 255
32.3367 3.46465 665 255 0 0 255
43.6216 8.03556 661 255 0 0 255
49.1372 4.57091 658 255 0 0 255
49.5158 -7.87752 648 255 0 0 255
47.4839 -18.0891 651 255 0 0 255
41.0756 -23.9608 657 255 0 0 255
34.6986 -24.289 666 255 0 0 255
30.1173 2.31671 667 255 0 0 255
34.386 6.8772 660 255 0 0 255
41.2632 6.8772 660 255 0 0 255
42.6977 -4.49449 647 255 0 0 255
40.513 -14.6297 648 255 0 0 255
32.5312 -20.9129 669 255 0 0 255
27.2813 -22.5367 683 255 0 0 255
21.4444 -19.0617 686 255 0 0 255
18.8671 -4.71679 679 255 0 0 255
19.9578 4.69595 676 255 0 0 255
27.9256 5.81783 670 255 0 0 255
23.6187 -16.5331 680 255 0 0 255
22.3717 -5.8873 678 255 0 0 255
22.2727 2.3445 675 255 0 0 255
27.9673 3.49591 671 255 0 0 255
22.5697 -20.194 684 255 0 0 255
21.1943 -8.24222 678 255 0 0 255
21.1943 0 678 255 0 0 255
40.3254 -4.4806 645 255 0 0 255
43.0936 -19.2787 653 255 0 0 255
42.9877 -33.6931 669 255 0 0 255
36.5013 -45.9209 678 255 0 0 255
29.697 -43.9516 684 255 0 0 255
23.966 -27.5609 690 255 0 0 255
22.3717 -8.24222 678 255 0 0 255
27.4254 -2.28545 658 255 0 0 255
40.3254 -7.84105 645 255 0 0 255
40.513 -15.755 648 255 0 0 255
20.3416 -23.9313 689 255 0 0 255
17.8182 -16.6303 684 255 0 0 255
16.5088 -4.71679 679 255 0 0 255
22.3717 2.35492 678 255 0 0 255
24.5808 2.34103 674 255 0 0 255
24.6173 2.3445 675 255 0 0 255
24.5808 2.34103 674 255 0 0 255
24.5078 2.33408 672 255 0 0 255
24.5808 2.34103 674 255 0 0 255
24.5808 2.34103 674 255 0 0 255
24.5078 2.33408 672 255 0 0 255
24.5808 2.34103 674 255 0 0 255
24.5808 2.34103 674 255 0 0 255
24.5808 2.34103 674 255 0 0 255
24.6173 1.17225 675 255 0 0 255
33.4916 -23.0977 665 255 0 0 255
34.907 -33.7434 670 255 0 0 255
35.1675 -36.3397 675 255 0 0 255
31.3694 -24.3984 669 255 0 0 255
43.7536 -26.4824 663 255 0 0 255
49.818 -43.8873 683 255 0 0 255
47.1679 -58.9598 679 255 0 0 255
36.932 -72.6726 686 255 0 0 255
29.9575 -76.6912 690 255 0 0 255
28.7592 -74.2946 690 255 0 0 255
28.6342 -70.3923 687 255 0 0 255
34.2471 -61.4085 680 255 0 0 255
49.5992 -60.2276 680 255 0 0 255
54.5626 -64.0517 683 255 0 0 255
57.7685 -77.0246 693 255 0 0 255
55.681 -85.9424 697 255 0 0 255
48.4183 -89.5738 697 255 0 0 255
42.366 -89.5738 697 255 0 0 255
38.4012 -79.2024 691 255 0 0 255
41.5758 -70.0849 684 255 0 0 255
50.9295 -67.5112 682 255 0 0 255
57.0182 -68.897 684 255 0 0 255
60.1755 -77.0246 693 255 0 0 255
60.7833 -86.3123 700 255 0 0 255
54.4706 -88.3633 697 255 0 0 255
49.6287 -88.3633 697 255 0 0 255
46.8014 -80.4025 691 255 0 0 255
46.3273 -70.0849 684 255 0 0 255
49.7451 -63.958 682 255 0 0 255
55.6671 -62.7736 682 255 0 0 255
58.121 -65.2379 683 255 0 0 255
58.6316 -72.9904 689 255 0 0 255
52.8016 -76.8023 691 255 0 0 255
44.4014 -76.8023 691 255 0 0 255
38.9708 -57.8657 680 255 0 0 255
38.9135 -51.8847 679 255 0 0 255
44.8095 -44.8095 679 255 0 0 255
53.8453 -44.2728 689 255 0 0 255
58.3763 -53.6109 686 255 0 0 255
58.121 -56.9349 683 255 0 0 255
53.2983 -61.5891 682 255 0 0 255
47.3763 -62.7736 682 255 0 0 255
42.5136 -59.0467 680 255 0 0 255
39.9155 -42.2635 676 255 0 0 255
39.3251 -31.2287 666 255 0 0 255
44.905 -28.7852 663 255 0 0 255
56.3201 -37.1473 690 255 0 0 255
56.4017 -45.6014 691 255 0 0 255
48.5607 -49.7451 682 255 0 0 255
43.6303 -49.5263 679 255 0 0 255
40.0927 -48.3471 679 255 0 0 255
39.8565 -39.8565 675 255 0 0 255
43.1162 -36.1244 671 255 0 0 255
52.6488 -37.0935 689 255 0 0 255
57.7685 -39.7158 693 255 0 0 255
60.0018 -48.0015 691 255 0 0 255
58.2061 -54.6425 684 255 0 0 255
51.9611 -57.8657 680 255 0 0 255
49.5992 -57.8657 680 255 0 0 255
45.9887 -57.7806 679 255 0 0 255
46.1919 -43.823 682 255 0 0 255
55.2017 -38.4012 691 255 0 0 255
58.7167 -37.1473 690 255 0 0 255
65.9065 -37.1473 690 255 0 0 255
69.5014 -41.9405 690 255 0 0 255
69.6021 -50.4015 691 255 0 0 255
63.1417 -57.185 686 255 0 0 255
56.9349 -59.3072 683 255 0 0 255
53.3764 -55.7487 683 255 0 0 255
53.9235 -44.3371 690 255 0 0 255
60.0018 -34.8011 691 255 0 0 255
71.898 -32.3541 690 255 0 0 255
79.5463 -32.5417 694 255 0 0 255
82.3111 -38.7346 697 255 0 0 255
76.8023 -39.6012 691 255 0 0 255
69.5014 -39.5439 690 255 0 0 255
67.1048 -37.1473 690 255 0 0 255
65.9065 -26.3626 690 255 0 0 255
71.7938 -20.3416 689 255 0 0 255
76.8023 -18.0005 691 255 0 0 255
79.6609 -19.3117 695 255 0 0 255
80.3486 -30.4351 701 255 0 0 255
75.6023 -38.4012 691 255 0 0 255
68.3031 -41.9405 690 255 0 0 255
64.802 -43.2013 691 255 0 0 255
64.802 -36.0011 691 255 0 0 255
65.9065 -27.5609 690 255 0 0 255
73.2022 -21.6007 691 255 0 0 255
81.1006 -21.7882 697 255 0 0 255
85.9476 -33.1512 707 255 0 0 255
85.5829 -45.2367 704 255 0 0 255
77.4692 -55.681 697 255 0 0 255
71.0071 -56.565 693 255 0 0 255
64.802 -52.8016 691 255 0 0 255
63.5099 -38.3456 690 255 0 0 255
63.2338 -25.0549 687 255 0 0 255
71.1686 -15.4199 683 255 0 0 255
74.1869 -15.5553 689 255 0 0 255
76.8023 -16.8005 691 255 0 0 255
77.2469 -28.9676 695 255 0 0 255
63.5099 -41.9405 690 255 0 0 255
49.7451 -47.3763 682 255 0 0 255
37.7343 -47.1679 679 255 0 0 255
28.9259 -39.7731 694 255 0 0 255
26.0569 -23.6881 682 255 0 0 255
37.0796 -11.2362 647 255 0 0 255
39.3876 -12.379 648 255 0 0 255
38.4394 -19.2197 651 255 0 0 255
19.145 -39.4866 689 255 0 0 255
9.62808 -40.9193 693 255 0 0 255
6.01755 -33.6983 693 255 0 0 255
6.02623 -28.9259 694 255 0 0 255
13.2004 -18.0005 691 255 0 0 255
15.5553 -17.9485 689 255 0 0 255
19.1728 -21.5694 690 255 0 0 255
19.2006 -31.201 691 255 0 0 255
16.7519 -39.4866 689 255 0 0 255
10.8316 -44.5299 693 255 0 0 255
4.84183 -44.7869 697 255 0 0 255
1.2174 -36.5221 701 255 0 0 255
1.22261 -23.2297 704 255 0 0 255
4.84877 -19.3951 698 255 0 0 255
13.2386 -21.6632 693 255 0 0 255
16.8005 -30.0009 691 255 0 0 255
16.7519 -38.29 689 255 0 0 255
13.2386 -44.5299 693 255 0 0 255
7.2419 -45.8654 695 255 0 0 255
3.62095 -37.4165 695 255 0 0 255
2.43481 -19.4785 701 255 0 0 255
4.7932 -9.5864 690 255 0 0 255
15.3521 -4.72373 680 255 0 0 255
24.6173 -8.20575 675 255 0 0 255
22.7677 -38.3456 690 255 0 0 255
9.60029 -39.6012 691 255 0 0 255
0 -31.7879 704 255 0 0 255
-4.86267 -8.50967 700 255 0 0 255
-4.86961 6.08702 701 255 0 0 255
4.7932 10.7847 690 255 0 0 255
12.9712 10.6128 679 255 0 0 255
14.1295 5.8873 678 255 0 0 255
14.1712 -2.36187 680 255 0 0 255
7.17938 -7.17938 689 255 0 0 255
0 -8.44888 695 255 0 0 255
-4.86267 -1.21567 700 255 0 0 255
-7.3461 17.1409 705 255 0 0 255
-4.89045 26.8975 704 255 0 0 255
0 27.9603 700 255 0 0 255
4.80015 26.4008 691 255 0 0 255
5.98282 17.9485 689 255 0 0 255
3.60011 10.8003 691 255 0 0 255
-2.43133 8.50967 700 255 0 0 255
-9.7948 8.57045 705 255 0 0 255
-13.6971 26.149 717 255 0 0 255
-13.7544 32.5104 720 255 0 0 255
0 40.4035 705 255 0 0 255
2.42439 31.517 698 255 0 0 255
2.42091 24.2091 697 255 0 0 255
1.21219 23.0317 698 255 0 0 255
-2.43481 23.1307 701 255 0 0 255
-2.44175 32.9637 703 255 0 0 255
-2.45912 45.4937 708 255 0 0 255
2.44175 52.4977 703 255 0 0 255
6.05228 54.4706 697 255 0 0 255
9.64197 49.4151 694 255 0 0 255
11.9656 39.4866 689 255 0 0 255
11.8614 32.0259 683 255 0 0 255
8.37594 31.1106 689 255 0 0 255
4.82099 32.5417 694 255 0 0 255
3.65221 46.2613 701 255 0 0 255
4.86961 58.4354 701 255 0 0 255
10.8316 61.379 693 255 0 0 255
22.6357 59.5677 686 255 0 0 255
29.6536 48.6319 683 255 0 0 255
33.3388 39.5126 711 255 0 0 255
29.0892 29.0892 670 255 0 0 255
25.5985 27.9256 670 255 0 0 255
22.5367 42.7012 683 255 0 0 255
22.6357 54.8023 686 255 0 0 255
30.6591 60.139 679 255 0 0 255
40.5755 60.2484 708 255 0 0 255
46.5253 48.974 705 255 0 0 255
49.7381 31.0863 716 255 0 0 255
44.4986 14.8329 657 255 0 0 255
39.9954 9.14181 658 255 0 0 255
35.4245 7.99909 658 255 0 0 255
34.386 20.6316 660 255 0 0 255
39.9572 32.4652 719 255 0 0 255
48.156 35.8083 711 255 0 0 255
54.5591 30.9995 714 255 0 0 255
52.5654 15.9982 658 255 0 0 255
53.1246 0 665 255 0 0 255
47.2651 -5.6268 648 255 0 0 255
42.6977 -11.2362 647 255 0 0 255
38.9708 8.0234 660 255 0 0 255
38.7937 11.4099 657 255 0 0 255
38.7937 14.8329 657 255 0 0 255
41.0756 9.12792 657 255 0 0 255
41.8311 -2.26114 651 255 0 0 255
40.3879 -11.2189 646 255 0 0 255
34.9938 -13.546 650 255 0 0 255
29.176 0 672 255 0 0 255
29.0892 5.81783 670 255 0 0 255
33.2398 6.8772 660 255 0 0 255
35.6937 2.30282 663 255 0 0 255
25.9423 -14.1504 679 255 0 0 255
20.1644 -14.2337 683 255 0 0 255
18.8949 -5.90467 680 255 0 0 255
18.8394 0 678 255 0 0 255
20.0168 2.35492 678 255 0 0 255
24.5808 -1.17051 674 255 0 0 255
28.1757 -17.6098 676 255 0 0 255
17.9485 -19.145 689 255 0 0 255
16.7033 -15.5102 687 255 0 0 255
15.3296 -1.1792 679 255 0 0 255
17.688 9.43357 679 255 0 0 255
24.5078 11.6704 672 255 0 0 255
28.7418 8.04771 662 255 0 0 255
31.6507 -17.5837 675 255 0 0 255
27.1215 -12.9712 679 255 0 0 255
24.5078 5.8352 672 255 0 0 255
24.2526 12.7037 665 255 0 0 255
24.2526 16.1684 665 255 0 0 255
27.5088 14.9006 660 255 0 0 255
32.2395 0 663 255 0 0 255
33.542 -26.6023 666 255 0 0 255
28.5925 -28.5925 686 255 0 0 255
25.9423 -14.1504 679 255 0 0 255
25.5985 5.81783 670 255 0 0 255
30.8536 11.4273 658 255 0 0 255
37.6527 10.2689 657 255 0 0 255
41.5741 -6.74174 647 255 0 0 255
43.8213 -16.8543 647 255 0 0 255
46.8205 -37.4564 674 255 0 0 255
38.8562 -44.7435 678 255 0 0 255
36.5551 -44.8095 679 255 0 0 255
34.6986 -26.6023 666 255 0 0 255
33.7608 -10.1282 648 255 0 0 255
39.3876 -4.50144 648 255 0 0 255
44.8755 -14.5845 646 255 0 0 255
45.848 -25.2164 660 255 0 0 255
42.4511 -43.6303 679 255 0 0 255
38.9135 -44.8095 679 255 0 0 255
33.2606 -45.1394 684 255 0 0 255
30.0009 -38.4012 691 255 0 0 255
28.7175 -27.521 689 255 0 0 255
28.1757 -23.4797 676 255 0 0 255
31.2756 -25.4838 667 255 0 0 255
34.3478 -35.5322 682 255 0 0 255
33.2606 -46.3273 684 255 0 0 255
27.2414 -50.9295 682 255 0 0 255
21.4444 -52.4195 686 255 0 0 255
19.145 -50.2557 689 255 0 0 255
19.2006 -40.8012 691 255 0 0 255
22.8007 -37.2011 691 255 0 0 255
27.6807 -36.1053 693 255 0 0 255
31.1106 -44.2728 689 255 0 0 255
30.7043 -53.142 680 255 0 0 255
28.4674 -58.121 683 255 0 0 255
23.7576 -58.2061 684 255 0 0 255
20.253 -53.6109 686 255 0 0 255
19.2006 -48.0015 691 255 0 0 255
20.4006 -46.8014 691 255 0 0 255
27.4011 -50.0368 686 255 0 0 255
31.979 -59.2203 682 255 0 0 255
33.2606 -67.7092 684 255 0 0 255
30.9752 -69.0985 686 255 0 0 255
27.3212 -61.7698 684 255 0 0 255
25.0549 -47.7236 687 255 0 0 255
25.2737 -37.3088 693 255 0 0 255
30.0877 -34.9018 693 255 0 0 255
36.6089 -40.1517 680 255 0 0 255
40.0927 -49.5263 679 255 0 0 255
40.1517 -59.0467 680 255 0 0 255
29.6536 -64.0517 683 255 0 0 255
20.2825 -66.813 687 255 0 0 255
14.2962 -58.3763 686 255 0 0 255
12.0525 -44.5941 694 255 0 0 255
14.3796 -35.949 690 255 0 0 255
22.8667 -36.1053 693 255 0 0 255
29.9141 -39.4866 689 255 0 0 255
30.9752 -45.2714 686 255 0 0 255
22.7677 -50.3286 690 255 0 0 255
10.7847 -52.7252 690 255 0 0 255
3.63137 -53.2601 697 255 0 0 255
0 -43.9516 703 255 0 0 255
3.63658 -36.3658 698 255 0 0 255
20.4006 -33.601 691 255 0 0 255
22.7677 -38.3456 690 255 0 0 255
21.6007 -43.2013 691 255 0 0 255
16.8491 -44.5299 693 255 0 0 255
8.44888 -44.6584 695 255 0 0 255
3.63658 -37.578 698 255 0 0 255
3.66263 -29.301 703 255 0 0 255
8.50967 -25.529 700 255 0 0 255
16.8005 -25.2008 691 255 0 0 255
19.3117 -28.9676 695 255 0 0 255
19.2839 -32.5417 694 255 0 0 255
15.6005 -37.2011 691 255 0 0 255
8.43673 -37.3626 694 255 0 0 255
3.66784 -24.4523 704 255 0 0 255
3.61053 -8.42457 693 255 0 0 255
3.60011 -3.60011 691 255 0 0 255
15.3521 4.72373 680 255 0 0 255
30.2076 1.16183 669 255 0 0 255
35.0477 -7.91399 651 255 0 0 255
32.8369 -10.1908 652 255 0 0 255
23.445 1.17225 675 255 0 0 255
23.1324 18.5059 666 255 0 0 255
23.4103 30.4333 674 255 0 0 255
23.5492 34.1463 678 255 0 0 255
30.2076 30.2076 669 255 0 0 255
32.1422 20.6629 661 255 0 0 255
32.0936 16.0468 660 255 0 0 255
30.9474 16.0468 660 255 0 0 255
25.4074 16.1684 665 255 0 0 255
22.0748 23.2366 669 255 0 0 255
22.4047 35.3759 679 255 0 0 255
23.6881 41.4542 682 255 0 0 255
31.9686 43.0346 708 255 0 0 255
33.3388 35.8083 711 255 0 0 255
27.9256 29.0892 670 255 0 0 255
20.0168 28.259 678 255 0 0 255
15.3296 28.3007 679 255 0 0 255
14.2129 31.979 682 255 0 0 255
14.2546 39.2 684 255 0 0 255
20.1644 43.8873 683 255 0 0 255
25.9805 43.6945 680 255 0 0 255
32.0589 41.9231 710 255 0 0 255
32.104 34.5736 711 255 0 0 255
29.0892 29.0892 670 255 0 0 255
23.4103 29.2628 674 255 0 0 255
20.0759 36.6089 680 255 0 0 255
20.253 51.2282 686 255 0 0 255
23.6881 59.2203 682 255 0 0 255
33.8442 61.8531 672 255 0 0 255
43.1805 56.0179 672 255 0 0 255
48.9045 45.2367 704 255 0 0 255
46.8553 36.991 710 255 0 0 255
37.1473 33.4326 713 255 0 0 255
27.0017 32.8716 676 255 0 0 255
24.8725 46.1919 682 255 0 0 255
24.7996 59.0467 680 255 0 0 255
28.259 63.5828 678 255 0 0 255
36.1244 62.9264 671 255 0 0 255
40.968 56.1846 674 255 0 0 255
44.0141 50.1271 704 255 0 0 255
39.1792 44.0766 705 255 0 0 255
30.8258 41.9231 710 255 0 0 255
26.0569 43.823 682 255 0 0 255
25.9805 56.6848 680 255 0 0 255
32.6771 63.0202 672 255 0 0 255
41.8884 63.9962 670 255 0 0 255
47.7062 58.1783 670 255 0 0 255
50.0559 53.7186 703 255 0 0 255
47.6819 48.9045 704 255 0 0 255
39.1236 48.9045 704 255 0 0 255
34.2818 52.647 705 255 0 0 255
30.4785 57.4403 675 255 0 0 255
35.0112 61.8531 672 255 0 0 255
40.7856 61.7611 671 255 0 0 255
45.3009 56.3201 705 255 0 0 255